1272
8.35064 7.794639 2.541039 190 165 32
0.03808618 5.155566 6.301332 43 216 147
1.461399 6.926118 9.714646 235 194 45
1.145723 9.472022 6.289806 126 152 192
7.369699 8.360988 6.426491 21 4 56
7.177958 8.954257 4.64876 212 146 52
6.357512 3.100831 7.422358 102 249 38
3.524379 9.196435 2.423817 38 79 95
6.781452 4.607195 0.7325757 180 71 167
6.062762 9.616566 7.053886 87 97 159
9.10819 9.708944 0.8976269 31 122 98
1.843877 9.835835 4.91609 223 74 122
1.16282 2.061322 5.54879 185 159 155
9.686812 1.282666 6.855015 77 61 35
5.924929 8.08034 8.564951 69 151 47
7.570867 5.821305 6.406301 130 85 227
2.75631 3.755188 2.538116 46 179 216
7.468648 4.426741 9.503065 124 181 245
8.325422 7.779946 6.66968 200 106 15
4.630198 9.910141 7.95374 70 55 34
9.829416 3.429184 4.656572 22 38 143
8.817299 3.328897 9.858723 46 229 166
1.321558 5.300954 0.4400992 21 228 42
7.736707 8.932741 1.435243 12 238 213
8.115458 1.633054 5.955139 66 217 200
0.7783782 2.057513 5.287387 94 177 115
5.419342 4.417288 6.4797 89 18 167
8.94425 4.793346 7.598196 21 186 118
4.212262 6.506964 5.79374 92 127 233
0.05982041 8.662104 2.20515 113 180 130
1.540912 1.959738 2.698746 146 120 152
0.007888079 1.632714 6.801396 12 12 40
5.418493 3.692817 9.474625 139 110 129
7.270701 9.191347 2.965986 140 76 102
7.222252 5.012539 0.7015181 223 199 155
4.411675 2.77863 1.567062 220 134 198
8.610373 3.271996 9.961411 205 61 245
6.620764 6.344551 0.9415066 25 184 222
8.970396 5.515042 4.424022 7 12 52
3.885611 0.3602481 0.7937908 131 246 65
5.869066 8.221036 3.633942 101 235 121
1.931843 5.753603 2.231526 220 36 180
7.225896 0.2889681 0.00660181 211 77 27
5.903759 4.231632 3.564877 228 34 36
1.187892 9.968901 9.342642 193 254 165
9.521275 0.6694674 5.44288 5 99 30
7.80803 8.71771 5.467309 226 43 145
0.1838124 9.864702 1.973735 67 183 218
0.8665037 2.421556 5.263272 236 34 40
9.844831 1.495013 1.363771 52 106 156
7.330489 0.8654439 4.998992 84 66 98
8.777452 2.391084 0.2652073 31 76 121
3.995237 3.889563 2.626107 232 216 153
3.770867 2.562937 1.194547 37 247 144
6.522679 7.15821 1.78754 43 32 157
1.139265 1.807114 0.9917748 55 18 59
8.270166 3.693211 1.107687 17 37 99
6.869406 7.317628 0.5401373 16 252 6
3.286652 7.361653 5.499663 219 88 206
2.925728 0.3643966 1.929512 206 253 109
0.4394364 2.221233 7.688768 190 150 242
8.058215 8.740911 8.285685 59 58 226
0.2329314 0.3307807 7.602646 140 86 178
4.918241 5.856207 4.671352 201 198 195
1.498379 6.141415 7.558234 154 112 251
1.113913 9.747934 3.018525 60 136 131
8.61315 2.210606 7.216792 134 81 163
3.696785 9.668873 1.144211 188 46 217
7.094389 9.502607 5.62327 58 155 185
1.805333 3.900846 3.296432 206 23 116
6.387409 5.840904 6.108959 156 24 170
1.88048 4.319854 5.79108 54 87 93
3.974332 3.83269 3.377274 59 254 168
3.809473 0.9291482 6.158338 136 75 24
2.525523 9.481113 8.191809 16 137 31
7.449856 1.701432 2.155313 9 114 215
5.466612 3.058371 7.200731 137 188 26
0.9220171 0.3620791 8.57061 182 65 78
4.985649 5.986821 2.232257 199 150 254
4.303507 8.675045 1.701759 179 179 126
2.288758 9.434546 2.179449 200 75 130
4.933839 8.509186 6.136537 123 112 129
9.288302 0.07091641 5.638713 195 24 88
1.78993 8.817945 8.849173 141 171 151
9.953557 6.016047 4.145818 235 154 95
8.870086 6.259372 4.297383 20 5 204
2.127889 3.458404 3.056829 133 214 228
9.032242 5.770912 5.07535 47 44 149
4.19491 3.807783 5.350447 56 112 15
0.09967446 5.714993 6.11162 55 18 77
1.424021 7.943776 5.018804 26 222 198
3.747239 1.278524 5.464962 78 6 197
3.580866 1.925706 5.264642 125 3 219
2.623487 1.408713 8.65787 231 199 208
9.952794 2.41992 8.935737 44 106 254
6.669425 2.50848 6.459679 203 248 230
2.126799 6.827117 1.850934 195 140 48
5.919545 9.357809 1.98987 40 121 219
8.688117 3.880217 7.45017 236 226 75
5.132641 4.843828 5.52674 40 243 61
1.841744 7.201809 1.958364 236 96 165
2.413462 0.1303661 6.566339 180 82 78
2.073394 6.231291 5.864578 61 225 87
0.7746947 5.147914 8.300868 100 230 234
2.627686 5.571383 9.607653 202 119 200
0.9738219 9.071712 9.33872 55 107 62
7.711763 0.7037723 0.0544107 156 0 204
7.198314 6.665289 2.199818 39 219 104
5.387523 5.538704 9.720276 45 187 253
8.905874 4.916289 0.7477391 62 44 24
1.460357 7.845502 9.546967 10 240 230
2.609889 5.1949 7.13253 243 151 156
7.979758 3.072153 0.8539248 120 43 73
0.7222784 9.688772 0.6849992 193 43 87
3.134864 9.784739 8.570081 226 154 203
1.498377 4.556594 5.934846 39 153 132
5.011484 6.030066 8.580969 203 129 39
0.7795227 7.746711 9.076097 10 161 29
9.929209 7.819264 4.407186 5 237 215
7.228882 5.276146 0.7630384 57 53 26
9.60651 6.402855 0.3220797 149 137 178
0.1829016 7.259783 9.163601 253 85 73
9.395791 4.878637 6.903091 250 79 55
5.060852 3.661759 0.3185427 203 239 248
3.285511 2.368982 1.251467 13 48 40
0.3819191 0.2423894 5.09129 159 150 61
6.853936 1.119412 5.405762 202 208 91
3.019497 4.719215 5.650091 91 186 42
3.101969 8.349682 2.357467 136 7 252
5.875577 2.226691 8.761219 220 145 205
8.228258 2.493553 5.913535 67 138 88
9.112255 2.877894 1.685247 228 247 5
9.622389 3.75523 1.937251 42 222 242
2.774646 9.899361 5.073444 169 239 32
5.956591 7.585706 9.753446 213 153 97
5.839015 5.105837 2.301306 95 16 72
7.04208 5.038657 5.237963 173 35 19
2.917544 8.023845 4.857257 49 196 122
1.373729 7.201475 7.060033 56 104 71
6.024991 7.147709 6.529218 64 89 220
1.550877 1.56255 2.988164 94 72 94
7.050292 7.339402 2.221438 203 54 170
0.7510376 5.628427 8.360749 206 174 61
6.751692 3.952463 8.984885 141 248 126
3.17044 3.564058 2.943187 145 178 124
2.272835 7.263801 9.786465 70 43 245
9.930683 2.540769 1.538708 78 108 245
6.762982 2.053065 5.587039 50 90 62
3.015676 2.068455 6.186917 30 128 153
2.390316 0.02890348 3.435151 82 29 116
1.305557 2.105987 6.827518 67 182 43
2.115446 1.954061 4.673066 37 32 83
2.409507 3.552758 1.327405 16 226 208
6.385945 4.719145 3.601125 41 109 54
3.087626 8.899951 8.646578 132 7 182
5.593514 7.716401 4.447833 31 122 177
7.105587 4.366684 5.428429 201 68 31
6.081993 3.070933 9.117184 171 129 178
9.991244 2.870465 0.8801961 159 163 132
9.223909 3.96713 1.796418 227 138 149
6.55006 9.231854 9.169718 246 13 164
8.729696 3.199814 3.149367 156 42 102
2.137907 8.332151 6.888451 91 89 63
8.876987 0.5891383 1.557237 250 18 64
5.701243 6.502601 9.220962 145 182 95
7.93827 2.905796 3.006556 193 102 188
5.148786 5.090037 5.768005 97 171 171
7.576749 3.117082 4.415668 33 235 193
9.371981 3.229282 0.4516792 242 198 83
9.120708 5.973551 3.434665 1 41 189
7.104856 2.54536 4.640837 119 165 187
2.41425 0.9390044 5.168399 96 236 223
1.216762 8.028992 9.927665 49 101 114
5.587922 9.169644 0.599699 228 13 128
2.813608 2.176158 0.5303919 142 115 237
7.970372 4.709237 4.680902 202 17 230
0.9051824 9.401713 6.850275 96 67 56
8.254209 7.758474 8.209313 64 103 146
9.245592 0.7581997 4.591753 229 100 151
3.202429 5.502131 9.210051 132 115 188
2.722709 4.242815 8.628107 217 73 254
3.017853 1.058824 6.322694 190 246 19
6.650021 2.178358 7.010195 89 10 34
9.585962 4.785431 0.9447801 193 233 208
7.118597 5.419555 9.465533 147 113 0
2.192302 2.436883 1.770959 172 245 9
6.062817 4.881166 5.041995 224 182 207
0.8775294 6.177904 6.203789 36 210 14
2.332333 3.125741 4.914866 122 234 64
2.078497 3.111244 5.465327 103 183 119
4.580644 8.348036 4.37231 156 166 247
8.759135 4.262276 7.808466 191 76 13
8.145085 9.162607 0.32377 243 57 168
4.17492 7.158719 8.709248 235 117 88
1.636125 2.62516 8.778688 222 10 132
4.798181 2.262337 9.111138 19 101 238
7.604312 1.932063 1.650225 68 7 209
9.363634 5.111274 8.926157 11 232 86
9.720135 7.485602 3.686065 171 131 166
6.634727 7.738329 2.984028 41 237 179
3.641141 3.395546 5.707564 117 216 200
2.290173 8.941286 2.212467 73 136 107
6.982499 3.262253 0.7613623 98 96 4
6.956718 5.092399 1.039416 178 28 70
8.954565 3.852753 0.6047416 180 38 166
8.828221 5.856166 7.416781 212 169 213
4.865634 0.7305229 0.2761555 186 79 73
9.497772 1.838923 1.368779 214 58 169
0.8837807 7.083044 3.084612 166 161 37
0.8540797 9.217907 2.814033 76 210 197
3.221229 5.29893 3.088098 76 213 232
1.755743 1.025611 3.847448 131 214 170
5.457581 2.044179 1.738554 211 50 11
6.642845 7.160901 4.645457 185 105 46
6.749548 0.1639938 4.882479 251 58 159
6.481324 3.50468 9.05407 33 19 251
7.977599 0.6548619 6.175945 166 102 233
8.925467 6.965077 7.767043 250 63 118
4.881962 1.159828 8.271293 244 16 1
1.168481 4.998703 5.927394 73 163 1
4.906049 8.137298 4.20697 93 213 14
7.860375 0.5376518 2.891198 86 215 70
1.992226 8.504913 3.29431 135 123 77
4.560194 4.310376 7.909524 233 165 219
8.783245 5.366807 3.213617 145 202 240
6.105911 7.211375 4.236464 224 209 35
0.2818489 3.558541 9.887857 50 41 44
2.086996 7.577226 9.991636 186 134 217
4.612562 9.640965 4.554539 153 88 195
8.879146 9.382553 0.08132219 233 203 179
7.647404 5.947451 1.022521 10 19 164
2.050347 3.856651 2.941266 113 88 254
6.142678 8.417312 6.365552 189 84 33
9.963035 7.09224 6.825647 100 240 96
3.012782 9.314989 1.351776 179 127 236
4.669711 7.251829 4.08478 229 198 76
2.582168 7.422271 1.459285 209 48 172
2.974879 6.193955 4.330516 48 238 115
3.82608 9.060169 0.2380037 241 110 91
5.855793 6.071755 4.988298 245 166 39
7.977405 9.094725 9.718988 212 173 205
4.831736 7.03645 4.231258 226 79 43
8.392297 5.464631 4.022999 215 226 233
7.94183 8.407061 9.23073 116 0 101
9.945845 9.41614 8.667648 81 59 99
9.944291 3.782955 7.416277 32 110 9
0.7534468 8.210724 0.7224607 93 89 199
5.568948 6.630888 9.93063 128 88 206
1.878325 6.61247 8.683524 161 136 141
1.924863 4.558742 4.656613 118 41 130
3.103366 8.072342 4.527275 78 204 205
8.960503 5.629353 6.68973 75 177 124
1.96949 0.7824767 1.508232 211 108 52
4.924969 1.769345 7.995229 74 32 229
3.184908 4.515102 8.299526 157 58 151
0.1380599 8.029306 9.861064 227 97 200
0.1444685 6.139992 4.408472 31 20 128
4.394045 1.672878 6.655745 245 176 180
2.575901 6.40847 1.491458 232 144 116
7.52798 0.9555411 4.601213 122 81 35
0.60377 3.356509 6.160018 72 81 136
5.997383 9.375297 3.29818 161 246 254
2.293819 2.990885 0.717864 228 149 201
0.0949657 7.450376 7.817029 169 168 62
0.710212 8.371777 8.644643 95 186 57
6.607563 3.967499 2.402661 234 219 44
9.538605 6.695308 4.153772 77 216 115
9.293041 4.883031 6.384737 104 119 37
7.616014 1.916528 8.401142 7 64 75
8.108532 3.876923 8.664612 204 198 31
7.167535 5.281256 0.4498959 174 201 214
3.616076 2.45611 8.92169 245 210 120
7.263051 6.839018 7.786655 74 15 55
9.981064 9.853083 6.304848 98 107 38
9.231018 6.182719 7.974873 200 52 69
3.342187 5.389944 9.643852 123 19 191
5.784251 9.168936 3.032979 208 211 138
3.759494 4.922671 9.528704 231 126 82
1.94265 9.49502 7.351286 110 197 230
5.669024 8.385529 1.06577 12 19 174
1.261216 2.252475 3.448852 218 58 24
3.531857 8.257853 9.61652 119 61 64
3.814206 8.153443 4.704829 169 224 153
7.009895 3.658178 8.155656 237 231 8
7.867979 8.723726 8.644835 21 71 229
0.7822311 3.845298 1.632426 150 229 230
6.704603 0.1043236 3.154626 59 159 247
9.141405 0.6468987 7.511631 35 225 223
9.112559 9.038792 5.49747 131 67 105
7.756339 1.085498 5.56693 137 220 96
3.997702 8.007454 4.38996 64 46 229
6.664436 7.783617 6.070518 246 82 146
4.022557 9.652363 8.620976 138 235 44
3.82246 9.01915 1.863692 202 83 204
5.550364 9.711052 1.304429 236 188 28
1.926118 1.447182 4.516812 161 123 250
5.855911 9.4135 4.908903 2 222 190
1.504054 4.51291 8.000565 29 22 55
1.096809 5.927079 3.773562 178 206 64
6.796161 4.311914 2.593141 132 51 11
5.027912 7.335242 5.886448 77 148 32
7.710194 1.753038 7.553845 213 109 135
2.403808 7.958899 6.159728 47 172 13
0.8802068 1.300228 8.687199 52 239 85
4.076939 4.504737 8.599262 169 147 123
5.708978 2.739906 6.805587 164 163 110
2.643537 3.655815 0.8194423 73 17 88
1.109173 2.001927 8.306026 54 167 238
5.05825 6.167004 5.700516 228 192 142
9.07036 5.532148 2.950429 198 250 39
9.07427 9.612288 8.771358 51 203 84
0.1079202 0.3153026 1.049677 22 170 89
5.326235 6.833129 8.095692 108 85 79
8.259502 1.497817 8.777875 124 112 124
8.940707 7.275414 9.613013 251 101 119
9.791698 1.882826 7.103835 194 159 250
4.164072 2.850104 5.702369 0 92 170
5.279162 1.671317 5.901781 158 213 219
2.086936 9.995156 1.51603 186 69 73
0.9663963 5.071394 9.570587 38 71 103
4.515572 6.657312 7.888627 70 208 124
3.783667 1.742419 1.144829 198 179 246
2.799595 8.642888 5.872571 27 214 8
0.7266903 1.384209 3.82457 68 86 190
1.165283 1.923416 7.563363 45 71 124
3.657593 6.337704 9.775657 34 228 111
3.952878 6.737591 9.13733 253 89 131
7.264202 3.157166 4.56204 122 15 147
2.695581 9.469721 9.752065 190 29 127
1.489813 1.020323 6.832022 152 216 216
7.273108 4.748702 9.545793 28 115 0
9.181075 8.319865 5.255404 157 215 126
5.084739 7.855619 2.340146 102 144 127
6.085496 7.522854 0.9816658 229 186 36
7.038716 9.315565 4.656479 253 139 188
4.574108 3.762719 5.675783 226 123 2
2.282118 3.73291 6.815104 195 217 84
0.596391 8.504071 9.594411 221 146 3
6.700776 4.323725 3.271814 58 183 106
4.270756 1.175847 6.091326 76 179 58
5.779237 1.752927 0.722543 87 221 173
6.600808 4.741287 8.776498 216 61 46
7.687191 5.279403 4.826637 191 96 216
9.565418 0.5622971 9.958557 213 128 250
3.00908 6.706053 8.155202 67 146 197
6.864701 5.915175 2.710514 111 220 171
5.441262 3.287163 7.328849 27 206 180
0.2136266 1.19396 7.832127 120 92 56
0.8682013 8.891411 8.776777 126 210 77
6.287855 5.585804 4.805808 17 127 19
0.5439329 8.288802 4.722193 16 171 184
9.495431 5.145123 6.156364 235 179 53
3.023286 1.26901 4.622478 200 207 86
7.107859 0.892477 5.548206 76 60 251
6.688284 7.383732 0.04655361 95 150 184
2.051097 2.284218 3.214032 239 106 91
5.307846 2.071345 5.317736 238 7 10
3.445057 2.488222 4.840357 11 1 24
9.738016 1.587148 3.204258 129 85 122
7.199209 1.511691 4.472135 166 14 99
2.149333 9.210762 7.653582 34 118 19
1.629409 5.431983 5.07736 198 174 109
2.802146 3.820526 7.265352 194 228 242
4.953115 3.133133 7.266304 67 127 200
7.070363 0.1620674 8.091564 207 44 7
3.316231 7.854626 2.976869 254 226 188
1.804327 8.4204 6.824375 121 91 88
1.267376 4.918966 1.085496 242 35 48
7.420008 6.061849 1.521077 220 87 164
8.938318 3.851936 3.322793 47 190 191
2.005894 5.754108 7.90957 168 189 3
1.500037 1.006141 5.523717 147 131 189
3.980624 7.506447 7.120361 50 135 99
9.271879 4.499264 8.966757 70 42 179
2.015164 1.055042 5.435575 39 190 243
9.245886 0.6981635 0.04801035 203 85 125
7.009547 1.292653 5.808084 75 183 185
6.125844 7.136334 0.4676175 252 226 77
0.2503502 9.859533 4.23532 1 72 230
7.804477 9.887764 5.766237 146 101 131
9.734064 4.640131 9.553848 83 64 190
5.866349 4.780807 1.713804 50 71 161
7.342818 7.161653 7.178228 187 167 162
8.961902 5.198565 2.767778 55 12 162
1.958292 7.639085 4.350935 111 39 122
2.240515 5.431118 0.7153368 76 115 237
8.832397 9.055967 5.702321 144 138 172
6.833738 1.094972 3.645113 63 20 42
3.55905 0.181334 5.79319 254 141 99
4.042252 6.777955 9.482259 16 228 163
5.001832 7.315927 1.891941 132 206 193
9.826706 5.28171 6.112558 39 232 160
7.440747 0.8732641 1.759137 185 179 130
3.63226 9.631931 4.65777 228 141 63
7.986213 1.230195 0.9581816 93 127 188
5.656536 6.769664 2.206284 114 6 147
9.63357 3.66282 9.289526 53 173 204
9.13653 7.530421 3.941879 48 11 15
7.037647 4.766388 6.687496 69 142 220
6.040531 7.480088 8.865234 57 216 27
7.786232 5.130718 4.748359 39 123 80
5.095531 6.479897 1.844306 154 92 16
2.748761 8.604269 4.694788 170 176 154
8.847816 7.660649 5.104857 72 205 172
1.954268 5.560198 1.112132 99 66 239
5.123351 9.961404 9.991001 34 175 190
0.851109 4.899514 0.8625197 191 38 51
7.569266 4.040377 0.9361041 73 30 81
2.880058 4.112702 2.06503 56 194 2
6.123565 6.292038 5.582187 129 123 114
2.096601 7.691478 5.312492 135 31 42
5.681868 0.6741345 0.9497356 151 149 219
0.1408815 4.265232 7.329697 149 83 14
0.7872009 7.776612 5.309824 119 121 130
9.441908 2.687655 4.144683 18 55 78
2.381278 9.625834 8.971237 54 243 244
8.78833 0.7333529 1.395162 184 192 186
8.061512 6.498024 8.183689 202 156 205
3.019266 0.70768 8.17663 3 111 78
9.831215 1.271183 5.185306 46 153 68
9.751787 7.944895 7.709373 9 94 163
5.026302 6.342738 8.720655 189 224 172
3.317394 7.493236 3.997274 141 249 184
3.902283 6.577072 6.895126 167 80 39
1.457798 9.02722 1.923476 162 133 42
5.488163 3.586106 0.594734 184 124 57
1.22898 4.558117 9.812973 186 82 148
2.900491 7.426368 8.771151 64 205 119
6.942324 8.274548 9.513147 207 168 225
2.159411 8.822761 5.762046 234 206 234
1.420953 1.923623 9.920977 22 85 42
0.585978 4.34553 9.097239 89 44 121
5.312655 8.675956 3.142638 214 123 251
7.905106 3.798819 2.50417 190 96 184
1.069461 4.206243 5.259768 28 56 207
7.307131 2.738914 3.612082 151 58 236
2.957495 1.150937 2.50956 221 136 31
7.490022 8.80887 6.254443 196 98 248
1.673979 6.156101 8.223405 157 61 47
3.836264 6.944711 7.578745 124 134 234
6.971282 2.153941 4.853639 172 157 53
6.803355 2.747066 9.848074 223 232 33
4.082548 4.472856 1.604574 116 180 234
0.4115021 2.931247 6.373476 204 239 15
7.732073 2.827282 0.4293156 229 56 90
7.278488 1.346573 8.638899 213 47 198
3.636729 7.867841 0.162071 219 13 81
1.602145 2.856626 9.678684 61 185 249
1.010246 9.357018 0.642997 67 42 80
1.135002 2.072591 5.409023 176 75 17
4.547739 9.375402 9.665218 53 133 159
1.100451 4.482904 2.239181 86 196 248
8.308243 7.704937 3.69011 178 110 83
8.456425 5.951933 0.5347204 43 106 215
9.405336 5.958946 5.962997 194 96 65
6.723082 1.750211 6.687182 244 159 180
2.354881 5.788703 0.1986265 196 216 145
5.08188 6.609132 8.515213 98 145 100
2.906127 1.232605 2.963945 147 222 92
0.3761387 9.249406 9.815491 95 246 144
6.510928 9.490253 3.000384 200 233 129
4.243085 7.649877 5.795942 198 82 77
9.382895 3.686614 5.817816 161 189 160
5.331228 6.886671 9.503342 157 229 117
1.067736 6.669074 6.771352 74 136 5
7.94263 8.382677 4.373742 105 205 32
1.472074 3.036017 6.742016 43 167 245
2.219349 4.370036 4.521878 181 112 130
3.496967 5.194718 1.894652 147 102 210
6.586956 1.135281 9.447256 61 42 19
6.202535 6.854905 6.175874 59 35 207
0.1690388 9.180398 5.222943 69 93 137
2.890769 3.671824 0.1178682 223 186 98
7.812307 6.406716 1.228215 120 143 199
7.170887 5.348406 7.826773 132 67 3
3.899308 5.586383 4.427654 137 141 54
9.226482 8.356791 7.506194 115 73 227
2.800927 6.140144 3.190876 39 64 120
8.8695 6.239117 7.413635 251 19 65
4.659013 9.48063 0.4306662 91 26 6
5.656137 2.339625 6.508691 173 224 220
9.530717 4.568656 4.081808 251 162 74
8.023948 8.603683 1.750612 80 203 155
6.962957 5.267672 6.443714 36 216 92
0.5206323 1.62292 6.065553 30 59 133
8.005275 2.149236 1.60305 164 193 11
4.672328 1.509303 8.217535 7 223 251
5.767191 1.868292 1.638844 150 18 201
6.050749 8.894931 0.9004104 143 101 228
2.482461 4.842668 8.254519 177 124 55
2.473706 4.401327 2.414962 213 155 178
7.992722 2.734913 5.961371 22 150 206
3.864417 0.5631626 2.233471 177 202 41
2.729413 7.358132 2.989487 19 252 119
0.8757579 0.2643573 7.069278 32 248 39
6.900029 7.546515 5.759891 242 67 230
0.9500253 0.557313 4.634628 203 46 169
5.665236 4.726481 9.226734 208 7 22
6.019052 2.654044 3.414349 82 37 158
5.072734 1.061615 2.652723 23 111 196
9.370408 2.972956 7.657814 141 218 31
6.780681 5.434316 3.052384 47 182 25
9.775208 5.195689 0.06918669 173 84 142
7.165321 1.339138 0.9604692 80 91 249
8.395601 3.876579 2.410629 33 196 90
9.198276 1.205536 7.303333 102 38 99
0.1632726 3.217024 5.690141 113 178 185
8.812651 3.857445 1.052346 77 26 195
1.942055 6.03128 1.017318 194 193 25
4.47735 3.377135 7.512688 191 19 165
8.978226 6.628567 1.608775 215 239 205
5.987642 0.354023 7.180939 199 234 25
6.625221 9.981983 7.991227 106 38 74
4.601412 1.789736 7.120114 90 34 55
2.050496 5.859344 4.855943 141 86 24
0.9492528 9.914787 4.263377 77 75 188
6.97383 1.646322 5.022997 10 225 207
9.571264 8.167419 7.829049 1 115 48
3.468981 8.027734 6.976502 188 78 228
2.939497 9.288906 4.140687 16 36 251
2.510872 8.032952 1.421061 96 62 117
3.139302 3.252311 2.439308 195 74 90
4.62651 8.185266 7.480865 196 155 60
5.664864 3.894178 7.605541 47 77 72
3.143597 2.407351 0.0674808 243 111 6
7.817401 8.231917 0.5903876 137 113 178
7.0015 1.98092 7.953534 147 5 225
9.893606 3.559882 9.940572 101 159 237
6.436344 8.803244 3.904899 144 175 224
3.146852 7.083912 7.061403 156 157 6
5.780466 2.832336 7.133018 54 120 49
6.095243 0.3266668 8.798223 17 29 160
3.005573 3.099148 9.945772 247 42 7
3.773404 5.611303 7.799577 43 236 184
3.340204 6.045858 3.086017 127 91 169
8.160583 8.253105 5.363687 139 170 32
1.341602 3.52653 7.640643 45 133 205
8.820935 8.866559 8.332578 96 81 113
0.2649498 0.8139956 3.716442 155 154 7
4.240114 1.627712 9.881597 44 57 161
9.834352 5.551211 6.42923 160 129 206
2.053682 4.204202 0.185504 53 11 175
7.240725 1.344768 4.64777 136 49 62
6.901445 2.199852 2.216837 51 230 60
2.757566 7.022353 9.157048 41 225 81
3.002812 5.867476 8.311876 64 244 98
9.832928 4.748315 3.064823 183 162 163
9.238948 8.680434 5.705064 179 171 138
2.933981 5.721679 0.5181134 173 155 189
5.465239 1.513243 6.27658 15 39 101
2.201439 0.9736204 1.618787 23 43 79
6.462696 5.52017 3.235769 233 96 104
8.637318 3.601075 7.809645 246 67 163
3.843563 3.647728 3.465957 105 158 202
1.667668 8.531922 6.348257 224 202 202
4.561739 7.815427 4.360179 140 99 136
4.600963 6.459491 9.656787 200 152 144
9.63153 6.011674 8.789379 179 123 53
4.176263 3.442878 5.621486 64 253 182
8.222271 3.113161 5.407789 168 159 158
4.146271 2.907624 1.543807 242 118 74
1.534683 6.183854 3.598626 168 45 222
6.186176 3.257678 7.053141 19 24 94
6.236753 2.826059 7.107184 30 134 236
4.889585 3.756128 1.955373 118 47 113
4.713614 1.085771 9.451248 124 95 169
3.263164 1.41306 3.469495 12 6 119
2.532197 2.008877 9.78504 193 187 233
3.024559 3.323792 6.714306 88 120 126
1.711015 7.359205 2.05145 239 163 38
5.511 4.434754 8.608879 103 128 216
0.2414846 3.375158 5.713675 157 135 123
6.081524 6.412587 0.8301568 205 18 124
3.815886 4.268398 8.238335 220 215 163
3.683675 4.25046 8.386137 42 83 105
3.043653 5.115052 4.309402 242 185 149
0.8153677 5.141427 4.189036 174 3 3
7.635718 6.598936 9.580193 163 134 184
5.720357 9.535076 5.793838 222 206 120
6.701656 5.947083 8.154263 90 77 166
4.379048 4.57776 9.567055 193 225 128
7.984437 7.253942 6.227967 8 206 239
9.206295 7.43188 2.734743 200 222 61
0.7789993 9.308846 1.215367 239 168 166
8.463859 8.9439 8.943681 22 127 79
8.328445 1.842349 6.685022 3 119 147
4.709237 1.556011 4.675736 192 94 181
2.888741 9.393869 3.815554 136 199 11
5.097468 0.6662297 6.273711 54 169 123
4.385314 2.584811 8.856098 209 123 71
4.026973 8.953744 4.286944 137 230 52
0.661087 4.282307 6.987914 134 139 254
1.233599 3.142531 4.295256 63 226 180
3.243044 6.142971 8.090282 176 2 152
8.673016 0.01554728 4.692323 96 221 60
7.003284 4.964858 3.625546 89 53 62
2.1347 4.06318 5.929766 235 86 8
8.178171 4.185352 0.6009185 46 65 235
8.182916 6.443399 0.3983569 102 22 181
9.390073 1.236285 9.139343 93 40 152
9.315788 5.123952 1.760088 169 98 216
6.038258 3.763167 3.919196 130 44 3
9.783982 3.503787 0.3219104 96 50 142
7.941259 5.794712 3.040854 245 87 33
3.319809 4.874529 2.428358 147 50 122
3.220434 2.514228 0.009883642 43 24 52
4.488376 9.209436 6.225228 74 99 129
9.890278 1.618185 8.849318 69 63 123
5.465487 3.097291 1.242174 153 170 142
6.908556 5.109618 9.546727 73 26 164
7.856597 0.4041278 5.622533 24 48 243
7.569683 6.11183 4.040018 153 45 139
8.108158 6.921475 2.418599 142 65 235
6.050655 1.761442 2.728676 221 181 101
0.9060478 6.193045 3.605078 142 115 164
1.459537 8.93949 4.598474 135 14 132
5.936191 6.544165 7.73456 115 119 249
4.932869 3.387783 6.703449 121 206 22
5.590593 5.864449 5.181897 166 8 96
0.2940094 6.71512 7.088026 162 78 137
1.032466 3.288333 8.190593 237 226 219
3.748791 3.743364 1.885895 132 77 87
3.07199 2.946438 1.3481 112 9 74
0.4986978 1.038653 3.751247 129 111 211
3.920328 7.955183 9.079773 134 13 190
7.033687 4.985339 6.374765 125 243 185
8.276743 0.9830868 3.612903 248 238 218
7.556311 5.654679 7.374128 243 189 183
4.259746 0.1189268 8.586967 215 203 82
6.905944 1.29072 8.135538 2 83 190
2.433132 4.480726 5.595502 0 217 35
0.555166 1.881801 4.411261 198 0 21
1.192294 7.201443 1.689988 147 157 113
3.139577 0.1646006 1.202615 246 221 145
2.770075 3.707742 6.83027 122 14 51
5.787277 7.323605 1.49109 155 107 22
9.689249 7.047467 8.652634 79 121 161
4.384306 8.493334 8.378892 43 114 56
7.069728 9.781493 1.308725 131 81 149
2.723379 5.644366 3.116382 254 126 103
5.272813 0.1551068 3.669811 203 156 97
9.88526 5.278561 2.080783 39 58 146
6.722537 2.810735 4.642395 39 220 177
5.26757 2.98292 8.909901 19 184 34
1.633316 0.9754348 5.516334 89 31 95
4.684233 2.492765 9.967672 39 223 203
4.977451 9.997978 2.75667 193 195 50
5.853425 0.9684455 8.623701 101 56 105
6.102943 5.407574 9.748469 200 58 62
5.388594 1.619546 7.699842 28 71 244
1.247134 5.529146 2.708421 5 101 185
4.185908 2.414881 6.690347 151 10 225
5.395786 3.909343 9.8235 17 229 5
3.917027 6.941947 5.855408 229 138 170
9.201636 6.271486 3.69608 160 249 46
1.149143 8.089399 3.170938 119 164 198
3.310081 5.619249 7.647555 10 25 124
4.906064 0.1573706 2.355403 161 234 85
5.364987 0.648725 3.519314 13 175 203
8.39837 9.303873 7.99495 173 238 122
5.258221 5.301149 6.269475 137 128 142
0.3984022 1.881267 2.752733 133 136 135
0.8902991 6.304481 1.564645 45 237 194
9.75327 1.088445 7.190713 142 52 18
2.32875 3.930702 2.504367 58 230 244
3.654763 5.96164 7.589913 215 19 114
8.364458 0.4735303 9.627618 168 214 194
2.946284 1.608117 1.007926 22 230 63
5.089953 3.987476 5.249532 82 36 250
5.96534 2.846181 1.005067 137 226 157
0.3834593 7.312361 0.75068 81 112 126
4.729724 4.246048 4.589965 63 6 96
7.005171 9.323987 8.233046 24 138 134
0.8996367 0.5439806 9.27919 198 38 197
6.935291 8.203087 5.808713 89 234 180
9.040503 6.706161 8.505981 6 93 210
6.403226 0.5593729 2.873168 153 65 56
9.182312 9.506363 4.688852 42 222 43
2.602248 2.343936 6.141201 159 184 181
9.867237 8.266921 2.062173 238 97 179
0.2462113 5.380173 6.697496 2 113 5
5.151713 6.940169 9.54934 249 233 69
0.8643937 2.628486 6.105532 106 171 178
2.184596 6.332227 8.271031 11 32 181
6.1109 5.187513 0.1150978 212 83 39
6.414394 3.625648 9.95688 106 173 253
9.755802 9.460243 5.013983 159 109 230
9.250963 0.4353058 8.902355 171 127 246
7.138738 3.792374 2.992782 215 165 254
3.624267 8.543312 3.159047 73 106 252
7.41785 6.876411 4.915015 26 177 54
4.723939 9.23421 5.935319 78 33 102
4.702534 8.527518 2.522984 152 8 3
1.379486 5.90527 6.440578 104 176 154
5.015885 7.878948 4.912043 165 198 228
4.134574 0.2867723 2.475439 86 153 200
3.465907 1.791168 0.1312649 204 7 16
2.526041 0.5868518 9.554423 165 200 171
7.92454 1.297044 1.472266 215 182 218
0.6165361 6.028443 2.206309 176 109 206
1.584603 4.960588 8.541197 147 36 23
9.205274 2.867567 9.236351 98 155 13
0.3830779 7.106982 9.499578 172 208 216
2.555805 2.172126 9.313964 116 82 60
4.108084 9.188262 3.5374 252 65 178
9.331903 9.295481 2.464517 61 59 155
8.190592 2.892645 2.440674 26 42 6
9.050234 6.761096 6.640152 88 228 59
1.90117 2.69576 0.1058054 14 71 231
6.977409 9.671581 7.493358 172 196 144
5.359903 3.828859 9.700185 39 40 143
7.213887 2.04555 2.534315 40 230 61
9.343901 6.132522 9.809514 188 240 111
0.02256393 7.548834 8.516762 51 43 161
6.786456 6.254908 9.678916 141 96 45
2.231164 4.391041 6.51904 100 53 220
7.407499 6.279758 9.887484 69 42 38
6.477439 6.009295 7.966286 189 6 172
2.714157 9.615899 2.54391 83 159 23
0.4765594 9.488555 7.60359 194 81 132
2.449503 2.251879 7.16165 90 228 226
6.840968 9.877802 9.216151 113 188 28
7.762407 6.214396 0.3584874 140 91 194
1.184416 5.835871 6.214674 215 148 158
2.725003 5.184083 2.645776 0 52 192
7.586806 0.5307126 5.519301 10 46 165
2.895413 5.015209 4.38898 59 75 155
7.81088 8.26833 7.089074 75 187 137
9.520542 5.721133 2.672725 161 106 196
3.753922 1.727253 5.13477 169 179 27
7.519216 0.8522153 9.906417 250 104 20
9.980055 5.92668 3.708542 232 59 41
3.506942 4.314093 5.585857 214 113 190
6.110235 2.942595 2.833478 113 117 231
6.428942 1.022261 0.7228363 204 115 143
2.747476 8.925582 1.24319 204 163 192
7.384878 5.89256 3.060395 39 161 24
4.114309 8.878518 0.02469301 156 19 22
4.878675 1.566573 8.313801 146 123 75
2.50406 5.1141 4.350876 1 117 122
7.052885 3.457071 8.026681 56 240 24
7.777539 0.9788418 7.368338 171 7 132
3.182053 4.234992 2.111065 26 83 70
9.604054 5.711538 0.8092594 194 123 93
8.740745 4.026788 5.217299 165 66 115
5.960951 7.371813 0.3793895 23 169 18
0.4742205 7.965958 7.178242 230 209 38
8.463224 3.426986 6.514235 206 238 235
5.469005 0.4173231 2.59283 175 87 150
4.651603 9.134494 6.563682 172 177 130
5.516668 7.270855 3.791806 108 39 125
8.978382 7.83494 7.676233 55 163 88
4.125845 1.870207 6.800864 53 143 6
0.04537344 3.098653 2.828142 38 65 15
6.068738 6.636387 9.75913 110 60 214
0.5220973 9.379122 6.302051 235 180 89
7.075217 4.077403 6.246548 159 233 99
3.392578 3.745769 5.437655 165 238 53
3.159747 9.346467 7.494248 231 54 112
6.386616 7.565146 3.433269 207 60 219
5.830787 9.006778 8.724761 84 176 52
6.94612 0.8129406 7.29183 203 251 106
9.576494 6.532669 8.529468 3 99 209
4.007209 8.315861 3.81131 79 80 166
8.78742 7.987814 5.227535 85 94 40
4.95575 9.547019 6.835981 165 121 143
5.647716 8.975029 0.1031125 196 151 246
0.2965546 0.9359109 4.187586 133 76 182
8.124237 9.383022 9.38051 0 52 221
3.523465 4.698231 7.577138 206 205 198
3.92633 1.084384 1.891567 186 27 175
6.654115 2.051084 0.5011439 101 102 236
4.950672 5.406504 2.942682 193 231 25
6.743836 8.223103 1.759064 165 145 98
5.825921 7.254121 4.633308 201 166 21
2.44094 1.588973 7.663884 156 160 201
1.617178 0.3845561 6.529677 24 15 95
0.8552539 0.04939079 6.914357 118 76 46
2.756646 5.379899 0.1096642 107 77 31
4.632291 5.370281 0.2990186 19 27 241
0.5598748 5.393939 6.654869 230 129 92
7.186104 2.101766 8.379932 43 24 35
9.603543 0.3668761 3.358226 235 50 161
3.620138 1.744834 1.332372 89 158 31
1.242151 7.536849 1.863209 46 53 179
2.568848 9.112494 9.155703 111 176 90
9.964165 5.507324 9.369544 104 163 148
5.42159 2.064769 0.4973936 226 250 177
1.848327 4.939006 7.470431 52 18 107
8.589034 6.399879 3.928842 207 243 176
9.000615 2.257998 1.957424 62 17 163
1.386458 9.853886 4.512055 163 247 54
4.629896 6.320201 0.3490818 63 223 19
2.890316 0.5270588 9.264076 211 23 226
0.6752813 7.360959 9.883556 177 90 99
8.32345 6.262983 7.291639 183 176 60
4.286855 8.979855 9.481913 94 115 100
9.776485 8.432838 3.863384 116 217 177
0.8332348 4.301459 2.716074 219 89 163
9.711871 5.026567 9.408365 192 95 147
7.557051 2.707111 2.5502 248 127 151
9.095285 3.618794 4.184825 233 49 56
8.019246 0.3234291 6.548619 100 124 100
5.938786 4.887679 5.363614 46 48 223
7.661469 8.206944 7.898705 21 117 131
2.410815 1.683488 6.373627 208 32 150
4.006168 8.727062 0.1926482 150 180 200
8.098315 4.091358 2.299833 63 134 157
1.060824 7.148867 5.411169 51 132 45
2.982543 6.875028 5.815189 24 228 247
4.838445 6.811297 6.633024 0 88 173
1.54469 7.12096 5.228227 103 181 170
0.6621432 8.953705 8.256684 196 51 11
7.914393 7.777989 3.394404 216 192 167
5.006812 0.4042661 2.187617 79 104 0
9.424086 7.597648 0.7968497 155 197 106
6.664109 4.284719 5.260827 138 144 143
3.248632 2.006652 1.970111 4 176 121
6.36472 1.833824 3.226754 227 173 17
6.485888 6.76029 9.664937 182 7 8
1.300483 9.73621 0.3275383 174 207 99
0.3537595 6.533934 2.529974 81 73 100
1.712533 9.071276 5.955791 87 189 189
7.739915 5.514691 3.532424 38 134 223
0.3932691 8.00408 8.651203 181 112 99
8.835587 4.14745 2.605671 138 159 181
9.997449 3.81286 4.743697 84 48 38
0.855608 7.06672 4.770546 135 177 179
6.860178 6.09157 6.906775 210 206 94
8.866391 2.617887 7.983924 28 51 227
8.952971 5.433681 1.141381 177 249 128
5.359711 5.921568 2.900191 143 165 103
7.827257 8.070833 1.33428 132 29 146
8.992006 4.784317 3.579478 114 59 215
4.581534 2.916393 4.59465 168 34 20
9.955424 1.852292 2.162094 162 32 43
9.758842 6.047602 3.688121 227 199 5
6.935812 0.6401694 8.582421 197 47 200
0.4275632 6.658903 7.092086 119 84 49
4.793651 9.766068 0.9083879 98 54 71
3.53374 8.155765 9.651951 61 50 182
1.334339 9.262255 3.546888 193 175 139
7.46284 3.914947 2.547984 14 82 178
1.622812 6.8649 3.863728 184 132 179
8.341965 0.7782137 7.084695 114 15 178
5.873418 7.219439 3.218719 131 82 44
2.380595 9.097178 2.447702 45 135 36
2.009114 8.498677 9.47548 123 204 113
9.644871 8.030396 9.721451 35 13 3
3.707363 9.911685 7.950531 82 36 205
3.499226 4.433023 6.84689 83 117 99
6.650293 3.61901 6.281061 247 83 83
7.543585 0.1359153 9.501465 204 141 52
4.360362 5.950336 3.693865 191 10 93
4.479908 1.411611 5.395901 108 192 98
4.490905 8.515525 9.803596 167 79 45
7.693924 9.541078 4.379054 49 244 92
4.444278 8.492269 5.818196 5 82 248
7.865206 7.135723 4.685236 210 139 100
0.688417 8.052773 2.110533 48 42 62
3.593065 9.444924 4.554781 9 118 16
7.837985 6.801604 5.133481 52 89 71
8.464167 7.734697 0.5446792 71 151 85
6.328546 2.396157 4.001859 92 2 19
3.015271 9.062893 3.493112 10 21 43
8.044538 6.792382 9.79812 20 92 13
2.240613 2.027916 6.648511 162 20 230
6.503356 1.724588 2.027905 178 239 4
6.237722 5.643861 1.400313 124 97 50
1.635792 8.485979 9.903027 105 211 58
3.261173 7.199162 5.378783 9 31 6
1.888326 0.8957255 2.531102 177 215 9
6.189994 0.7387257 6.816273 17 42 254
9.586199 9.32043 3.289628 136 13 1
4.68052 3.424166 1.949792 198 178 133
9.811438 4.924782 5.165472 58 130 246
3.144884 1.342136 3.896749 107 233 3
2.137449 6.072216 0.8685279 57 195 206
6.528148 4.673323 7.854874 180 53 172
9.566216 7.27028 2.738958 167 54 112
7.166261 9.569698 0.9365225 3 128 83
8.575859 9.743153 4.115625 233 115 130
9.634819 3.488669 3.148468 90 88 162
9.533752 2.903804 3.036985 3 116 56
9.020185 6.619085 1.358038 251 63 121
7.339491 0.3513181 4.365395 149 226 21
8.300955 6.03173 6.207397 171 117 223
7.787678 4.589813 1.669626 2 138 76
5.40018 9.858016 3.629361 184 191 82
4.203948 0.8129191 5.946683 80 169 77
1.123972 4.205075 2.323233 143 186 226
8.538417 5.20248 8.448497 11 216 134
5.887471 3.027029 2.373102 212 147 229
2.080028 8.165532 8.806733 203 213 195
4.69402 7.783809 6.568555 250 67 108
8.040838 1.639339 9.913094 137 193 88
0.4072297 2.279136 2.82963 82 93 241
0.613395 0.1291728 5.066924 252 222 238
2.499988 9.62113 3.848656 30 195 64
4.406648 9.482766 5.563198 174 44 231
4.505232 0.557487 2.461237 159 136 250
2.491883 3.777454 8.300691 196 1 111
6.04562 9.369051 9.779903 18 182 99
6.394274 3.486085 7.718885 45 194 221
4.747441 6.016144 7.074088 164 115 116
9.801792 7.630595 6.355825 112 14 187
7.904381 0.5753005 1.380397 45 86 243
5.399293 4.370664 8.08498 240 115 230
6.382555 3.151417 6.17413 240 64 188
4.531594 1.154543 4.223836 105 208 30
1.3973 1.924691 1.935543 137 89 69
1.705073 0.9546304 0.6496274 251 60 107
8.614832 0.8857274 5.712373 170 104 215
3.134377 5.045454 8.407006 240 161 121
6.281227 3.035717 8.338245 41 162 221
0.2273238 3.369902 3.07606 31 35 154
0.5427241 4.204681 9.627718 216 9 62
9.380215 1.112388 3.429083 103 185 179
6.397959 1.968837 5.002301 111 130 249
9.471083 7.539147 3.662768 208 194 177
6.171 5.012937 0.9467602 82 242 58
1.673532 9.312539 4.55859 231 193 2
9.307644 3.349468 0.8582807 111 186 45
5.409587 1.108568 9.028448 200 100 109
9.771978 0.8422792 3.82945 82 229 86
1.315973 8.081737 3.497394 228 224 220
1.849648 0.2091849 7.638775 140 144 79
8.561807 6.99496 5.59443 77 45 177
8.628199 8.754826 5.80503 182 249 177
2.638815 1.008732 4.21622 162 248 127
1.728443 8.300767 6.532972 203 44 18
4.973798 6.842638 6.217475 223 154 111
7.693342 7.270247 4.106246 102 51 127
4.841586 0.8422244 2.531473 6 204 157
3.38774 6.354023 0.1146507 223 106 250
0.5046761 8.63378 8.249472 190 161 70
6.431507 7.937366 9.937262 86 134 11
3.369669 6.347961 1.012133 40 52 122
4.055937 7.066128 8.857029 43 98 153
9.616227 2.867868 3.232243 132 227 211
1.810924 6.916822 0.3467393 210 16 112
2.606543 4.027471 4.610637 152 123 45
0.1112449 8.277361 5.787495 252 155 4
0.8806181 3.048339 8.946436 62 142 4
2.338442 4.012429 4.236887 83 195 240
4.422966 4.482474 0.7380831 102 18 82
5.078151 7.602211 9.000777 60 16 53
7.47687 1.939603 2.759034 23 251 248
2.634608 4.366893 2.816532 101 35 239
7.990186 1.630042 3.039598 28 195 103
9.665005 2.9793 3.553627 5 158 48
0.472827 8.474374 4.6295 193 228 247
7.945099 3.572495 5.856958 84 69 39
3.756616 9.713617 1.071762 79 248 170
7.762456 2.007674 2.768664 102 201 68
5.189962 9.208256 4.785896 107 222 36
0.353626 8.534849 4.64114 147 180 69
4.414525 7.468445 2.458618 104 185 46
2.756791 8.129749 4.799076 155 150 2
5.658503 4.088805 8.590082 35 218 222
7.141772 8.851908 4.107496 220 179 128
7.545508 1.375569 5.484333 50 126 148
1.060749 4.732751 4.833236 198 118 26
0.5676174 1.581306 0.383054 199 114 78
6.604359 5.620036 9.551286 103 50 155
7.443027 3.743968 5.795607 218 115 204
9.336719 9.478421 3.362271 124 224 157
1.182164 4.043679 8.512003 40 253 13
7.30921 2.17479 3.309206 251 67 20
5.784952 5.934073 5.428531 201 222 189
3.661323 6.394417 9.584763 226 109 104
0.4126227 2.86833 7.392336 103 190 89
0.6912851 2.200031 5.017474 188 229 43
1.946729 8.520417 9.606934 124 58 94
2.440053 7.437979 3.758614 251 33 194
8.941919 5.841681 2.715621 211 118 70
5.944852 0.1247191 6.063238 190 244 95
9.370058 5.97599 5.775309 36 93 53
8.807627 9.248265 3.079746 114 108 107
6.750703 0.9435296 9.063731 212 199 160
8.568 5.324233 7.668208 222 88 70
2.647571 0.4351914 0.8249331 165 197 82
0.5657458 3.046402 8.646521 195 18 233
2.650402 4.780819 2.357621 243 10 67
3.471518 7.422755 8.29277 77 124 143
1.654818 2.89284 8.978394 50 33 149
7.892742 4.241919 7.709401 166 52 16
9.141529 6.115808 7.383933 172 185 66
1.641343 8.441607 0.6335688 94 147 227
9.886064 2.192297 9.310293 101 152 8
2.394446 4.972243 7.072221 111 114 104
6.585054 0.2380538 2.159959 252 156 196
3.466614 6.727228 6.669959 141 63 86
8.619167 4.955358 0.3350925 37 86 161
9.424734 1.414602 9.452847 216 14 216
7.540134 2.016095 2.313681 171 7 15
0.7234871 4.047297 2.927756 147 217 167
6.84703 0.8613729 7.340147 88 100 140
3.308332 0.8852887 1.246027 175 180 231
3.735557 5.867196 2.20691 212 26 123
3.07515 6.311255 1.252321 205 200 237
0.8793235 8.096533 5.095458 33 116 161
6.293595 4.518947 6.624413 203 183 91
4.458828 2.817302 6.187481 187 82 7
5.406184 9.362007 3.045091 249 133 35
1.635913 7.917206 8.935927 198 154 112
1.972463 5.198801 8.697971 17 187 58
9.196109 9.875742 0.8252835 161 80 202
3.35836 5.875624 6.985867 132 73 109
3.354643 9.155264 1.567194 180 31 147
6.135773 9.521976 7.652875 173 222 47
2.40139 8.605726 6.523206 44 252 138
9.489595 3.434148 7.133017 222 86 176
7.954016 5.291228 1.053004 98 179 199
5.979192 7.69084 3.29143 47 16 233
9.855835 0.5289543 3.179874 103 209 101
0.5215824 7.859375 8.99581 77 67 193
8.995569 7.236415 6.731738 89 66 250
9.481359 8.874488 1.861614 225 180 1
2.015495 0.5703211 4.24897 212 226 109
2.138348 7.369494 8.880397 24 153 236
0.1037025 3.223246 4.668079 63 130 120
7.641249 7.253729 4.506293 245 87 244
2.819519 2.369139 8.337143 201 168 61
1.485679 0.03140092 8.016229 243 2 115
4.935317 7.632865 9.062576 215 86 79
9.389832 3.967431 3.228677 65 145 1
3.020983 5.563651 3.007564 40 169 101
5.400023 4.877289 7.939088 231 153 252
6.014374 5.891883 0.610863 188 169 106
4.434285 3.78933 5.704258 225 252 26
4.444957 7.294873 8.786574 34 97 227
9.799233 8.766469 8.935021 72 11 41
5.096697 8.666306 6.563109 240 44 210
7.333975 6.569947 7.875179 106 59 142
4.94431 6.987967 5.303367 54 132 41
7.940001 5.321489 7.500472 18 102 254
7.059888 5.703787 4.749927 161 253 238
8.023605 0.3146803 4.615652 190 250 34
8.39655 9.851696 6.302102 235 60 244
4.895675 8.895702 1.425656 231 167 106
2.71816 1.778977 5.303096 46 92 242
3.317151 6.116276 6.460396 202 4 81
2.214115 2.000531 9.541931 88 192 210
0.912621 1.345929 9.176484 64 63 241
0.3754675 8.348713 7.682014 91 19 207
6.56829 6.238583 7.109268 15 27 231
9.532835 2.923573 5.246093 134 28 194
7.409534 3.096039 5.585428 125 133 77
0.0292325 7.314565 7.648219 216 40 39
6.099947 3.213208 9.595797 203 93 124
1.310787 4.371229 0.3222108 234 4 87
7.84376 9.874729 6.128933 163 244 94
2.650151 9.562725 7.988514 236 40 0
7.955158 2.769626 7.166897 168 18 5
1.431627 4.571914 2.698348 157 222 42
9.606991 8.574134 9.531952 125 34 205
0.7955408 1.818055 4.967201 187 57 143
8.035433 5.824339 1.900126 221 77 94
4.451792 6.757424 1.544007 253 176 241
6.2207 6.169164 9.340898 201 252 166
4.458117 5.717218 2.058004 166 50 114
8.931054 2.199963 6.556284 12 153 221
9.145322 4.446666 7.17394 223 131 172
9.616398 5.537653 2.703795 97 177 118
2.679889 6.487055 9.286715 98 128 202
7.496491 4.269889 5.694399 229 66 142
4.402946 5.197653 7.947464 165 115 159
5.075244 3.016935 2.399166 55 90 92
8.772287 8.099016 4.186267 104 210 212
9.775213 1.282245 0.1399064 46 76 170
8.040967 4.191545 4.668965 103 204 32
9.455116 2.161885 5.124557 216 143 115
1.074445 9.568648 2.52608 236 200 33
9.068974 9.722566 1.777782 161 39 196
2.518423 1.325774 6.228588 158 88 12
0.1732433 4.874792 0.6713629 164 16 168
1.957229 0.4755294 7.415643 247 253 171
7.729411 4.934345 6.013526 94 139 245
5.314474 6.935637 8.380774 202 121 109
1.058451 3.159652 1.107378 234 234 139
4.566508 9.686866 1.796063 211 82 217
7.158922 9.489019 6.496434 158 102 95
0.3287399 5.264804 4.600571 146 24 205
6.596194 7.689733 3.033846 41 210 47
7.803383 0.2391434 7.696086 101 47 191
4.340384 9.95367 4.409854 97 69 58
5.791535 2.422477 6.531263 183 199 47
2.586948 8.374437 2.213368 189 63 249
0.1754344 8.011194 5.907361 39 147 69
0.847199 0.9449172 1.188593 124 132 216
5.384814 6.972883 4.98787 63 67 23
1.948692 5.219993 4.969549 249 207 195
8.057475 1.314007 5.822424 108 114 226
9.505024 1.939725 2.467455 241 157 122
3.30822 7.772151 7.730711 153 179 222
4.229689 8.951235 6.910677 223 19 14
0.1077676 6.477209 4.880592 221 140 61
5.580542 4.32391 8.705105 213 33 2
5.986984 2.470951 3.180944 170 204 214
1.805698 3.861828 8.717373 64 196 39
3.701489 9.055566 8.088137 140 143 197
8.109965 4.298996 8.293379 68 203 225
5.477185 6.810055 8.844886 252 9 23
8.067209 0.7731271 6.230348 175 230 163
6.8221 5.218482 7.556672 132 56 26
3.786597 2.011133 6.223204 163 204 11
4.892451 3.055834 6.823765 225 175 96
6.150392 9.626026 2.209845 100 62 82
2.755135 7.553629 0.2295673 109 37 55
0.5812037 7.597227 0.02508283 46 10 210
4.619569 6.541749 5.358729 60 14 174
7.991763 8.320444 7.197511 25 147 28
8.688798 1.482338 7.104755 220 114 181
2.36745 3.35162 0.8637142 65 55 230
1.690437 3.594927 4.633925 50 128 18
2.088666 1.429206 4.204363 107 171 119
4.980723 8.071589 7.339791 2 20 214
1.871828 0.9596634 1.190915 1 250 228
6.553827 7.807313 2.414832 133 42 109
7.755041 6.540383 5.535138 155 48 121
6.189089 9.018045 9.488585 33 172 165
5.037059 5.098269 5.774717 163 167 198
0.4132044 7.256108 8.943448 166 87 123
0.3960049 3.072612 1.979676 27 173 142
3.483601 6.914392 3.45396 166 38 24
2.923046 5.591778 5.363904 36 145 32
1.809523 1.529967 3.724454 210 94 137
5.142941 6.618582 7.307057 12 51 219
1.014074 5.595484 9.524286 122 26 6
3.377697 2.431755 8.77222 132 85 170
2.013967 2.085464 4.198566 253 73 31
0.2672589 2.469926 5.114201 67 84 96
9.696689 9.527826 4.802611 236 24 173
2.653251 4.828944 6.519085 39 226 239
3.631825 8.147836 5.363276 33 237 146
9.405818 8.594334 1.862183 55 156 217
4.52951 9.917519 6.550699 94 84 10
4.92317 9.741152 5.036753 127 231 150
1.439759 0.2823031 4.138279 15 204 137
3.927664 5.709605 9.539698 74 172 53
5.546417 0.6794941 0.09003043 184 90 156
7.538982 1.469367 6.683532 41 178 190
2.597778 5.048801 6.255679 44 77 197
3.444232 3.042073 1.338128 59 180 191
0.4941571 3.574841 2.014163 58 13 216
6.620108 7.658584 9.108018 176 145 197
7.78002 7.984096 1.665035 25 201 26
5.49421 9.216839 0.02415419 14 243 233
2.788389 5.130513 8.726339 51 239 224
6.762203 2.302369 1.146556 153 37 157
5.077236 5.607741 1.154522 194 155 126
4.248991 7.679473 7.262911 11 43 100
6.071054 3.375365 8.318138 176 125 23
8.112286 3.514034 6.614876 12 45 223
5.616446 2.215489 4.502234 174 119 167
3.8304 0.712477 1.72233 5 216 189
8.095449 8.478113 5.849788 181 104 202
9.809684 1.183847 2.018328 31 146 57
2.104486 5.213216 9.257335 130 103 115
1.244451 0.7891476 5.478067 225 161 253
3.553305 9.382074 0.5155456 183 0 11
5.88274 4.536016 5.40414 163 225 70
5.744119 9.096066 3.460486 13 119 214
8.841576 8.456896 1.380502 128 64 80
6.876128 8.51408 0.2572119 0 6 86
3.091669 6.773938 7.520263 124 27 193
3.463908 6.723163 8.114625 12 200 248
0.1539207 7.777388 1.54395 149 37 114
6.882372 6.313479 5.039973 62 247 233
9.004811 0.4533875 3.135058 253 191 20
6.857792 7.546564 2.530263 68 4 234
3.234613 2.269989 8.111153 239 207 125
5.048023 7.504953 2.14249 170 159 70
1.076683 3.614356 4.371576 136 51 103
3.132964 7.374467 0.4333389 137 129 1
8.436013 5.54334 5.256025 202 129 30
4.410055 0.5184519 0.5456161 99 91 147
8.910178 5.87095 9.668999 64 187 177
4.570891 0.7963395 4.231505 219 65 28
3.568308 8.196288 6.285305 53 243 123
7.800176 1.292746 6.36919 145 162 86
6.732569 8.324526 8.289552 143 73 171
9.127203 9.685883 2.245439 228 92 63
0.9744811 1.491232 9.646725 38 14 63
8.597584 4.687529 6.926143 244 68 41
5.970023 7.833396 0.3531468 226 212 88
0.8648276 3.56786 9.987192 52 68 157
7.739907 9.521054 8.63162 137 220 5
3.747979 2.30652 7.022247 236 20 6
7.047163 5.122924 5.806303 1 9 80
4.755819 3.88166 2.518788 46 205 247
5.029823 6.416464 8.207485 182 17 114
4.003343 6.242108 3.55515 67 97 254
2.43677 8.810833 1.473335 85 20 77
9.62852 1.17491 2.570124 187 41 73
2.862022 4.766075 0.8156979 38 231 32
6.354547 7.088656 8.673086 56 82 28
0.3559506 3.813345 0.1244807 40 135 45
4.725817 9.172798 7.033638 183 176 119
0.3520143 7.235849 9.189712 119 62 34
6.241438 2.625671 9.295437 83 230 51
7.960633 4.141846 4.952311 127 13 48
0.4834306 5.31602 3.666871 192 190 86
6.777054 4.207294 5.340543 73 148 115
3.716897 1.590326 5.582294 208 87 203
5.512372 0.5030787 4.774998 210 115 248
2.954516 3.27379 0.9600925 199 81 193
7.39704 3.558975 1.709846 9 160 101
0.4343915 1.409951 9.345555 103 76 182
2.312226 9.634607 1.559778 16 218 59
6.20756 6.851064 4.031858 37 235 244
2.52059 4.293129 5.410075 17 4 89
2.177188 9.489938 3.6721 234 181 254
1.806948 9.481707 1.785995 89 170 180
8.916287 7.85479 0.9591556 159 103 60
0.6011331 3.887256 9.443351 108 126 52
5.960949 6.390432 2.302313 98 175 214
6.500932 7.188884 7.620958 186 195 144
0.5231893 3.433651 6.532878 95 104 218
3.052372 0.2206075 4.967521 231 190 242
8.271574 8.825644 1.880789 83 84 118
2.75608 3.646813 3.899646 183 118 143
3.828707 3.81459 6.273252 116 161 224
5.707979 0.6920171 4.490523 118 194 0
9.677043 5.63287 1.621193 202 102 138
3.367471 5.791512 0.6221592 77 118 11
4.438321 2.495898 7.491434 50 54 182
1.056242 0.1200771 6.334576 104 36 235
7.728081 6.144635 9.894094 81 131 65
6.904677 3.791593 8.920483 136 210 143
0.964359 4.778154 5.530937 68 211 217
8.406058 4.681022 0.07571936 168 196 160
3.090134 9.751345 2.243979 1 132 251
5.82846 1.440189 3.777087 125 238 119
3.771443 8.332842 9.081611 126 106 191
1.205484 4.319263 4.235572 127 219 240
1.962118 3.421988 5.956578 173 191 94
8.949503 1.844337 2.202413 11 108 245
9.844464 7.18483 4.818296 48 166 138
1.523213 0.08778214 3.138245 167 38 54
4.685898 5.394415 4.850223 83 208 243
1.590835 0.2469063 8.195745 180 141 34
1.338254 1.950104 0.6899679 253 252 233
6.559192 4.439898 4.205454 177 124 23
2.852993 7.168643 0.2081919 62 64 145
1.195544 5.382956 3.116611 128 193 200
6.163942 4.301075 1.101635 74 226 145
9.111624 6.528131 1.179062 150 225 163
0.8287239 6.165814 2.413117 141 4 91
0.6038737 5.164419 8.062735 122 66 40
8.910738 5.148149 2.533279 150 50 96
8.134357 6.779212 5.369286 246 135 55
1.317859 1.667311 5.782612 64 167 198
0.2658117 6.720153 2.59859 35 81 131
4.640195 2.002534 3.537455 28 14 69
6.011661 5.191589 2.563658 19 70 207
5.575039 0.6384528 0.07134557 212 35 34
8.340012 2.481626 3.218408 8 72 231
7.689505 0.4979062 6.036789 67 164 242
4.475952 9.975084 4.026906 241 198 247
4.923909 1.094838 1.252385 106 94 210
6.641593 2.996979 8.660486 156 148 53
3.969273 6.215673 0.1006925 136 74 80
3.481262 8.472645 7.478379 130 33 130
3.830567 8.986904 7.271666 185 90 175
9.351808 8.481111 2.1251 34 1 63
2.069973 1.190251 5.273936 241 218 83
8.525939 5.574998 9.777149 237 41 215
7.645569 7.667022 0.6539714 175 198 171
8.542406 6.30638 1.661474 159 172 47
5.643671 9.588717 8.528854 45 37 232
